# .PCD v0.7 - Point Cloud Data file format
VERSION 0.7
FIELDS x y z rgb
SIZE 4 4 4 4
TYPE F F F F
COUNT 1 1 1 1
WIDTH 369
HEIGHT 1
VIEWPOINT 0 0 0 1 0 0 0
POINTS 369
DATA ascii
-0.2022581 -1.7002468 0.79986042 1.9914256e-38
-0.19729096 -1.7003689 0.7997998 1.8162539e-38
-0.23117751 -1.691493 0.79867196 2.1850364e-38
-0.22482087 -1.6932479 0.79779404 2.1850364e-38
-0.21520098 -1.6954581 0.79668808 2.0744017e-38
-0.20537899 -1.6964017 0.79621595 2.0744017e-38
-0.19544691 -1.6965946 0.79611945 2.0098647e-38
-0.1853819 -1.6957558 0.79653913 1.8439126e-38
-0.17518826 -1.6937536 0.79754108 1.6687409e-38
-0.16833994 -1.6918651 0.79848588 1.6687409e-38
-0.24207811 -1.6828569 0.79746759 2.3509886e-38
-0.23427655 -1.684936 0.79596072 2.3048907e-38
-0.22396755 -1.6843944 0.79484779 2.3509886e-38
-0.21406282 -1.6843945 0.79484773 2.3509886e-38
-0.20415829 -1.6843958 0.79484707 2.3509886e-38
-0.19425368 -1.6843971 0.79484648 2.3509886e-38
-0.18434918 -1.6843988 0.79484558 2.3509886e-38
-0.17444487 -1.6844025 0.79484373 2.3509886e-38
-0.16413933 -1.6850983 0.79587919 1.9637669e-38
-0.15568826 -1.6827141 0.79753959 1.6963996e-38
-0.25302371 -1.6727022 0.79768699 2.3509886e-38
-0.24642356 -1.6763275 0.79602712 2.3509886e-38
-0.23581547 -1.6734648 0.79484683 2.3509886e-38
-0.22596259 -1.6734647 0.79484701 2.3509886e-38
-0.21610981 -1.6734648 0.79484683 2.3509886e-38
-0.20625727 -1.6734667 0.79484588 2.3509886e-38
-0.19640452 -1.6734673 0.79484558 2.3509886e-38
-0.18655188 -1.6734689 0.79484481 2.3509886e-38
-0.17505743 -1.6734731 0.7948426 2.3509886e-38
-0.16356263 -1.6734751 0.79484159 2.3509886e-38
-0.15319914 -1.6754673 0.79530525 2.0283039e-38
-0.14627203 -1.674577 0.79796493 1.4382518e-38
-0.26046291 -1.6633863 0.79813969 2.3509886e-38
-0.25516537 -1.66662 0.79612494 2.3509886e-38
-0.24473582 -1.6662401 0.79484922 2.3509886e-38
-0.23491831 -1.6662464 0.79484606 2.3509886e-38
-0.22509958 -1.6662451 0.79484671 2.3509886e-38
-0.21528129 -1.6662465 0.79484588 2.3509886e-38
-0.20546298 -1.6662482 0.7948451 2.3509886e-38
-0.1956445 -1.6662487 0.79484481 2.3509886e-38
-0.18582618 -1.6662506 0.79484385 2.3509886e-38
-0.17600809 -1.6662544 0.79484195 2.3509886e-38
-0.16618977 -1.6662565 0.79484081 2.3509886e-38
-0.15637076 -1.6662527 0.79484272 2.3509886e-38
-0.1457669 -1.6669675 0.79539704 1.89923e-38
-0.13866478 -1.664771 0.7980445 1.4105931e-38
-0.26337877 -1.6544893 0.79720068 2.3509886e-38
-0.25548863 -1.655888 0.79491621 2.3509886e-38
-0.24497668 -1.6555127 0.79484791 2.3509886e-38
-0.23521 -1.6555179 0.79484516 2.3509886e-38
-0.22468492 -1.6550077 0.794846 2.3509886e-38
-0.21404995 -1.6555194 0.79484445 2.3509886e-38
-0.20428252 -1.6555203 0.79484391 2.3509886e-38
-0.19451499 -1.6555209 0.79484367 2.3509886e-38
-0.18474768 -1.6555232 0.79484248 2.3509886e-38
-0.17498057 -1.6555271 0.7948404 2.3509886e-38
-0.165213 -1.6555276 0.79484016 2.3509886e-38
-0.15544496 -1.6555241 0.79484195 2.3509886e-38
-0.14567786 -1.6555289 0.79483956 2.3509886e-38
-0.13634486 -1.6549348 0.79636341 1.7056192e-38
-0.26570061 -1.6457464 0.79683238 2.3509886e-38
-0.2549358 -1.6448814 0.79484773 2.3509886e-38
-0.24521911 -1.6448838 0.79484653 2.3509886e-38
-0.23550276 -1.644888 0.79484433 2.3509886e-38
-0.22578536 -1.6448859 0.7948454 2.3509886e-38
-0.21606882 -1.6448895 0.79484349 2.3509886e-38
-0.20635195 -1.6448911 0.79484272 2.3509886e-38
-0.19501534 -1.6448914 0.7948426 2.3509886e-38
-0.1836791 -1.6448942 0.79484105 2.3509886e-38
-0.17396249 -1.6448984 0.79483891 2.3509886e-38
-0.16424516 -1.6448969 0.7948398 2.3509886e-38
-0.15452777 -1.6448946 0.79484099 2.3509886e-38
-0.14481124 -1.6449003 0.79483795 2.3509886e-38
-0.13423672 -1.6447953 0.79580438 1.8715713e-38
-0.26544601 -1.6347388 0.79595214 2.3509886e-38
-0.25512162 -1.6343726 0.79484701 2.3509886e-38
-0.24470077 -1.6338787 0.79484493 2.3509886e-38
-0.2341799 -1.6343786 0.79484391 2.3509886e-38
-0.22451256 -1.6343776 0.79484445 2.3509886e-38
-0.21484607 -1.6343819 0.79484206 2.3509886e-38
-0.20517904 -1.6343831 0.79484159 2.3509886e-38
-0.19551183 -1.6343831 0.79484159 2.3509886e-38
-0.18584497 -1.6343856 0.79484034 2.3509886e-38
-0.17530452 -1.6348879 0.79483813 2.3509886e-38
-0.16489689 -1.634388 0.79483908 2.3509886e-38
-0.15449722 -1.6338886 0.79483956 2.3509886e-38
-0.14395446 -1.6343921 0.79483682 2.3509886e-38
-0.13494007 -1.6346337 0.79507387 2.1573777e-38
-0.12774687 -1.6356971 0.79959947 1.3552758e-38
-0.27110589 -1.6250143 0.79972076 2.3509886e-38
-0.26568329 -1.6240988 0.79567927 2.3509886e-38
-0.25530943 -1.6239594 0.79484636 2.3509886e-38
-0.24569254 -1.623964 0.79484391 2.3509886e-38
-0.23607512 -1.6239659 0.79484302 2.3509886e-38
-0.22485434 -1.623965 0.79484344 2.3509886e-38
-0.21363449 -1.6239704 0.79484063 2.3509886e-38
-0.20401676 -1.6239704 0.79484057 2.3509886e-38
-0.19439906 -1.6239706 0.79484051 2.3509886e-38
-0.18478173 -1.6239737 0.79483891 2.3509886e-38
-0.17516442 -1.6239773 0.794837 2.3509886e-38
-0.16554636 -1.6239748 0.79483825 2.3509886e-38
-0.15592845 -1.6239737 0.79483891 2.3509886e-38
-0.14631131 -1.6239794 0.79483587 2.3509886e-38
-0.13989918 -1.6239766 0.7948373 2.3509886e-38
-0.12730731 -1.6295033 0.79918975 1.3552758e-38
-0.2652449 -1.6158201 0.79641002 2.3509886e-38
-0.25474241 -1.6131765 0.79484528 2.3509886e-38
-0.24433173 -1.6136703 0.79484224 2.3509886e-38
-0.23476279 -1.6136694 0.79484272 2.3509886e-38
-0.22519398 -1.6136695 0.79484272 2.3509886e-38
-0.21562602 -1.6136751 0.7948398 2.3509886e-38
-0.20519964 -1.6141636 0.7948395 2.3509886e-38
-0.19489093 -1.6136757 0.79483944 2.3509886e-38
-0.18459038 -1.6131914 0.79483747 2.3509886e-38
-0.17416199 -1.6136823 0.79483604 2.3509886e-38
-0.16459267 -1.6136786 0.79483795 2.3509886e-38
-0.15572076 -1.6143624 0.79483765 2.3509886e-38
-0.14733711 -1.6171011 0.79483497 2.3509886e-38
-0.24615632 -1.6034676 0.79484153 2.3509886e-38
-0.23504908 -1.6034665 0.79484206 2.3509886e-38
-0.22394228 -1.6034683 0.79484123 2.3509886e-38
-0.21442275 -1.6034735 0.79483843 2.3509886e-38
-0.20490235 -1.6034733 0.79483843 2.3509886e-38
-0.19538195 -1.6034735 0.79483843 2.3509886e-38
-0.18586202 -1.6034766 0.7948367 2.3509886e-38
-0.17634203 -1.6034799 0.79483509 2.3509886e-38
-0.16840802 -1.6034771 0.7948364 2.3509886e-38
-0.23260303 -1.5967246 0.79484218 2.3509886e-38
-0.22627775 -1.5967264 0.79484129 2.3509886e-38
-0.21520902 -1.5967327 0.79483789 2.3509886e-38
-0.20413928 -1.5967327 0.79483777 2.3509886e-38
-0.19465096 -1.5967331 0.79483765 2.3509886e-38
-0.18516308 -1.5967369 0.79483575 2.3509886e-38
-0.17295738 -1.5679972 0.7924915 2.3509886e-38
-0.16983807 -1.5679973 0.79249144 2.3509886e-38
-0.15961275 -1.5622703 0.79914922 9.4039542e-39
-0.17446031 -1.5556097 0.79924428 9.4039542e-39
-0.22480266 -1.7023064 0.80730289 2.1204995e-38
-0.21556735 -1.7035741 0.80562294 1.9729865e-38
-0.20572565 -1.7044909 0.80517137 1.9545474e-38
-0.19579309 -1.7047949 0.80502164 1.8162539e-38
-0.185701 -1.7038645 0.80547988 1.7701561e-38
-0.17605519 -1.7030544 0.80693483 1.6318626e-38
-0.16871494 -1.7014605 0.80851024 1.5765453e-38
-0.24307258 -1.6930063 0.80714744 2.3048907e-38
-0.2348869 -1.6955272 0.80455935 2.1758169e-38
-0.22568998 -1.6976368 0.80263776 2.1573777e-38
-0.21537073 -1.6990223 0.8004691 2.046743e-38
-0.20717952 -1.699801 0.80008209 1.9914256e-38
-0.19224781 -1.6999136 0.80002606 1.8162539e-38
-0.18552853 -1.6993071 0.80032748 1.8162539e-38
-0.17470247 -1.6982586 0.80232918 1.6318626e-38
-0.16442776 -1.6955605 0.80403888 1.604204e-38
-0.15577742 -1.6933464 0.80697924 1.4474714e-38
-0.25399444 -1.6840771 0.80698109 2.3233299e-38
-0.24633874 -1.6859177 0.80289483 2.3233299e-38
-0.15336904 -1.6865314 0.80238366 1.4843496e-38
-0.14549246 -1.6848828 0.80657923 1.4290323e-38
-0.26249972 -1.6733522 0.80665189 2.3509886e-38
-0.25662002 -1.6755015 0.80274713 2.3509886e-38
-0.14177953 -1.676815 0.80344963 1.3829344e-38
-0.13545887 -1.6731884 0.8067342 1.3460562e-38
-0.27220273 -1.6600647 0.80894774 2.3509886e-38
-0.26574051 -1.6658688 0.80480659 2.3509886e-38
-0.14006694 -1.6699955 0.80028129 1.4290323e-38
-0.13384667 -1.6648998 0.80286235 1.3552758e-38
-0.12955196 -1.6641884 0.80687422 1.3091779e-38
-0.27304083 -1.6534567 0.80683506 2.3509886e-38
-0.26768464 -1.6568257 0.80257642 2.3509886e-38
-0.13246569 -1.6559076 0.80012435 1.3644953e-38
-0.12616974 -1.6546086 0.80625111 1.2907388e-38
-0.27317607 -1.6449392 0.80417049 2.3509886e-38
-0.12499481 -1.6446096 0.80407923 1.3183975e-38
-0.27539253 -1.6354046 0.80517894 2.3509886e-38
-0.12266304 -1.6352255 0.80527008 1.2999584e-38
-0.27640322 -1.6251634 0.80576944 2.3509886e-38
-0.12224406 -1.6290978 0.80481666 1.2999584e-38
-0.2756485 -1.6159816 0.80621457 2.3509886e-38
-0.27467212 -1.6093235 0.80609947 2.3509886e-38
-0.26851207 -1.6072696 0.80001169 2.3509886e-38
-0.27261013 -1.5969671 0.80899721 2.3509886e-38
-0.12521742 -1.5840406 0.8069309 9.4039542e-39
-0.13245487 -1.575955 0.80592251 9.4039542e-39
-0.25503755 -1.5615404 0.80835116 9.4039542e-39
-0.14229172 -1.5636973 0.80718923 9.4039542e-39
-0.13786252 -1.5665573 0.80741811 9.4039542e-39
-0.24349782 -1.5552962 0.80644739 9.4039542e-39
-0.23411123 -1.553092 0.80413121 9.4039542e-39
-0.17683564 -1.5501885 0.8021996 9.4039542e-39
-0.16324326 -1.5539532 0.80366373 9.4039542e-39
-0.15534036 -1.5539013 0.80720115 9.4039542e-39
-0.14657041 -1.5596555 0.80760717 9.4039542e-39
-0.22670856 -1.5456917 0.80814797 9.4039542e-39
-0.21645083 -1.5472884 0.8037805 9.4039542e-39
-0.20515049 -1.5437871 0.80568928 9.4039542e-39
-0.19434743 -1.5434004 0.80589992 9.4039542e-39
-0.1855011 -1.5459962 0.80448502 9.4039542e-39
-0.17452727 -1.5454481 0.80740464 9.4039542e-39
-0.16731599 -1.5495162 0.80607212 9.4039542e-39
-0.22403806 -1.7118514 0.81820869 2.0559625e-38
-0.21547115 -1.7123779 0.81657135 1.8623517e-38
-0.20602259 -1.7130316 0.81579393 1.8807908e-38
-0.19608326 -1.7133849 0.81562316 1.751717e-38
-0.18597619 -1.7124368 0.81608164 1.6779605e-38
-0.17586799 -1.7121767 0.81805182 1.5488866e-38
-0.24344461 -1.7029039 0.81763005 2.1481582e-38
-0.23499273 -1.7042769 0.81451011 2.0744017e-38
-0.22593948 -1.7074316 0.8137635 2.0836212e-38
-0.21657372 -1.7083781 0.81158811 1.89923e-38
-0.20588833 -1.7088623 0.81042773 1.9084495e-38
-0.19595231 -1.709195 0.8102653 1.7793757e-38
-0.18585205 -1.7082558 0.81072378 1.7240583e-38
-0.17573668 -1.7078857 0.81275171 1.5949844e-38
-0.16513161 -1.7051545 0.81458569 1.5212279e-38
-0.15614247 -1.7030753 0.81693441 1.4382518e-38
-0.25340879 -1.6939327 0.81604856 2.2495734e-38
-0.24525578 -1.6972885 0.81301451 2.2680125e-38
-0.15358441 -1.6971996 0.81244481 1.4290323e-38
-0.14525025 -1.69408 0.81581056 1.3644953e-38
-0.13764006 -1.691263 0.8190167 1.3460562e-38
-0.26437417 -1.6842734 0.81695694 2.3509886e-38
-0.25800997 -1.6872063 0.81295079 2.2956712e-38
-0.1408959 -1.6869593 0.81197274 1.3460562e-38
-0.13440113 -1.6841576 0.81622928 1.2538606e-38
-0.27171192 -1.67469 0.81693709 2.3509886e-38
-0.26559761 -1.6766888 0.81217867 2.3509886e-38
-0.13293712 -1.6776409 0.8125571 1.2907388e-38
-0.12659223 -1.6730694 0.81555414 1.244641e-38
-0.28110456 -1.6602207 0.81975263 2.3509886e-38
-0.27479643 -1.665406 0.81463528 2.3509886e-38
-0.1245195 -1.6657162 0.81338859 1.2262019e-38
-0.11925279 -1.662918 0.81841213 1.1801041e-38
-0.28160065 -1.6532024 0.81674784 2.3509886e-38
-0.27686635 -1.6545666 0.8117193 2.3509886e-38
-0.12237937 -1.6576837 0.81196392 1.2354214e-38
-0.11744748 -1.6542721 0.8162123 1.1893236e-38
-0.28376287 -1.6440711 0.81700486 2.3509886e-38
-0.27943197 -1.6443806 0.81143838 2.3509886e-38
-0.1170501 -1.6438471 0.81351358 1.2077628e-38
-0.28351277 -1.6349952 0.81511754 2.3509886e-38
-0.11418789 -1.634342 0.81562865 1.1985432e-38
-0.28355294 -1.6264374 0.81445295 2.3509886e-38
-0.11534692 -1.6265745 0.81330514 1.2538606e-38
-0.28287098 -1.6160127 0.81514466 2.3509886e-38
-0.11598705 -1.6134614 0.81467426 1.244641e-38
-0.28187951 -1.6094024 0.8149842 2.3509886e-38
-0.28144115 -1.5983269 0.8189339 2.3509886e-38
-0.27712435 -1.5981374 0.81371498 2.3509886e-38
-0.1131384 -1.5952479 0.81522286 9.4039542e-39
-0.12012745 -1.5821007 0.81326455 9.4039542e-39
-0.11729562 -1.5868182 0.81431776 9.4039542e-39
-0.27270377 -1.5707941 0.81746536 9.4039542e-39
-0.26851088 -1.5709736 0.81210136 9.4039542e-39
-0.12575303 -1.5741771 0.8139205 9.4039542e-39
-0.11947154 -1.5765206 0.81971633 9.4039542e-39
-0.13416305 -1.5630386 0.81456482 9.4039542e-39
-0.12816244 -1.5671048 0.817662 9.4039542e-39
-0.2618112 -1.5593904 0.81650615 9.4039542e-39
-0.25517616 -1.5553863 0.81514883 9.4039542e-39
-0.24855934 -1.551373 0.8138079 9.4039542e-39
-0.15175535 -1.5510069 0.81226122 9.4039542e-39
-0.14569506 -1.5535449 0.81496853 9.4039542e-39
-0.13816795 -1.5570521 0.81775153 9.4039542e-39
-0.25246787 -1.5497326 0.81991184 9.4039542e-39
-0.24394457 -1.5458297 0.81736356 9.4039542e-39
-0.235341 -1.5445384 0.81400037 9.4039542e-39
-0.2243337 -1.5413678 0.81223452 9.4039542e-39
-0.21669587 -1.5406942 0.81086051 9.4039542e-39
-0.18150273 -1.5406908 0.81086248 9.4039542e-39
-0.17529956 -1.540777 0.81255436 9.4039542e-39
-0.16415691 -1.5439408 0.81407398 9.4039542e-39
-0.15472592 -1.5458081 0.8171438 9.4039542e-39
-0.22506997 -1.5380448 0.81750369 9.4039542e-39
-0.21368037 -1.5372577 0.81532747 9.4039542e-39
-0.20522904 -1.5364771 0.81488198 9.4039542e-39
-0.19519034 -1.536278 0.81474197 9.4039542e-39
-0.18549244 -1.5373703 0.81497675 9.4039542e-39
-0.17472832 -1.5376905 0.81711704 9.4039542e-39
-0.16866027 -1.5389262 0.81876218 9.4039542e-39
-0.22279741 -1.7203048 0.82705623 2.3509886e-38
-0.21619149 -1.7206942 0.82687134 2.3233299e-38
-0.20629506 -1.7214093 0.82653183 2.2680125e-38
-0.19633734 -1.7217158 0.82638627 2.1758169e-38
-0.1862461 -1.7209845 0.82673359 2.2034756e-38
-0.17785224 -1.7204514 0.82698661 2.3509886e-38
-0.24343111 -1.7123526 0.82716441 2.3509886e-38
-0.23485252 -1.7124519 0.82449383 2.1389386e-38
-0.22618797 -1.715528 0.82381207 2.0836212e-38
-0.21601321 -1.717051 0.82308251 1.8254735e-38
-0.20615964 -1.7180233 0.82261783 1.8254735e-38
-0.19621782 -1.7184039 0.8224358 1.6963996e-38
-0.18610299 -1.717441 0.82289618 1.6318626e-38
-0.17551996 -1.7167841 0.82399994 1.7056192e-38
-0.16646843 -1.7136639 0.82409072 1.6687409e-38
-0.15635189 -1.7120967 0.82636917 2.0283039e-38
-0.25348133 -1.7031015 0.82531005 2.2864516e-38
-0.24510884 -1.7068136 0.82352608 2.1758169e-38
-0.23677753 -1.7090585 0.82139528 2.0283039e-38
-0.16215596 -1.7092879 0.82128495 1.4659105e-38
-0.15414338 -1.7069968 0.82300067 1.4198127e-38
-0.14541128 -1.7035254 0.8251065 1.7056192e-38
-0.26492766 -1.6936152 0.82518435 2.3141103e-38
-0.257718 -1.6970221 0.8229261 2.2403538e-38
-0.14240192 -1.6976229 0.82202548 1.3091779e-38
-0.13480403 -1.6950647 0.82493997 1.68718e-38
-0.27289426 -1.6834241 0.82492405 2.3509886e-38
-0.26733369 -1.6868658 0.82237846 2.3509886e-38
-0.13176434 -1.6876262 0.82200795 1.1985432e-38
-0.12506969 -1.6848023 0.82581222 1.8531322e-38
-0.28261411 -1.6744879 0.82720339 2.3509886e-38
-0.27709076 -1.6756397 0.82361937 2.3509886e-38
-0.12422716 -1.6777667 0.82197249 1.1985432e-38
-0.11897829 -1.6741664 0.82464463 1.4474714e-38
-0.28362849 -1.664446 0.82489479 2.3509886e-38
-0.27891737 -1.6682234 0.82122135 2.3509886e-38
-0.11543258 -1.6656338 0.8243084 1.4935692e-38
-0.10902061 -1.6600031 0.82708055 2.2864516e-38
-0.29116142 -1.6559565 0.82727891 2.3509886e-38
-0.28639284 -1.6543232 0.82340515 2.3509886e-38
-0.11326534 -1.6565834 0.82276279 1.1708845e-38
-0.10704426 -1.653994 0.82644701 2.0375234e-38
-0.29095945 -1.6435974 0.82622528 2.3509886e-38
-0.28827235 -1.6455169 0.82347637 2.3509886e-38
-0.11156382 -1.6463068 0.82128322 1.1247867e-38
-0.10700649 -1.6448148 0.82621622 1.7609365e-38
-0.29275507 -1.6345689 0.82626247 2.3509886e-38
-0.28838956 -1.6348344 0.8216573 2.3509886e-38
-0.1110049 -1.637321 0.82040471 1.1247867e-38
-0.10529661 -1.6347952 0.82644701 1.89923e-38
-0.29224744 -1.6242522 0.82580352 2.3509886e-38
-0.28853074 -1.6251228 0.82120585 2.3509886e-38
-0.1068427 -1.6245974 0.82444334 1.5304475e-38
-0.29257354 -1.6135566 0.82707167 2.3509886e-38
-0.28838578 -1.6148407 0.8228665 2.3509886e-38
-0.10476345 -1.6180396 0.82657093 1.9268887e-38
-0.2909618 -1.6032823 0.8269915 2.3509886e-38
-0.28738323 -1.6082728 0.82267082 2.3509886e-38
-0.11235109 -1.6095977 0.82021928 1.1708845e-38
-0.10631797 -1.6050396 0.82609725 1.7609365e-38
-0.28766268 -1.5963396 0.82525694 1.9914256e-38
-0.10810061 -1.5958966 0.8254841 1.6410822e-38
-0.28399387 -1.5853395 0.82682496 2.3141103e-38
-0.11306234 -1.5859289 0.82534993 1.6779605e-38
-0.28069788 -1.5764596 0.82500428 1.604204e-38
-0.27720135 -1.57372 0.82468492 1.4105931e-38
-0.12194754 -1.5705762 0.82457888 1.5581061e-38
-0.1176793 -1.5761812 0.82515001 1.6595213e-38
-0.27291238 -1.5668647 0.82652318 1.6410822e-38
-0.26915669 -1.5626553 0.82698524 2.3509886e-38
-0.13058919 -1.5619559 0.82387054 1.5304475e-38
-0.12592898 -1.5659453 0.82456267 1.5120083e-38
-0.26482743 -1.5572536 0.82495803 1.2169823e-38
-0.25876656 -1.5528216 0.82347786 9.4039542e-39
-0.1419263 -1.5506458 0.82463241 1.4751301e-38
-0.13531677 -1.5555986 0.82474023 1.5488866e-38
-0.25342757 -1.5488107 0.82560623 1.6410822e-38
-0.24502702 -1.5431457 0.82515436 1.4105931e-38
-0.2390721 -1.5418108 0.8206774 9.4039542e-39
-0.15431972 -1.5426213 0.82469285 1.4105931e-38
-0.1462328 -1.5473362 0.82465613 1.4751301e-38
-0.23470423 -1.5386035 0.82446748 1.1985432e-38
-0.22572635 -1.5352663 0.82475781 1.2815193e-38
-0.21491322 -1.5331959 0.8235687 9.4961499e-39
-0.2040389 -1.5316027 0.82442445 1.0786889e-38
-0.19492239 -1.5315137 0.82447237 1.0786889e-38
-0.1851851 -1.5330724 0.82338887 1.2077628e-38
-0.17487125 -1.534443 0.82413107 1.1524454e-38
-0.16521105 -1.5379649 0.82446361 1.3644953e-38
-0.15923911 -1.5396366 0.82529801 9.4039542e-39
