# .PCD v0.7 - Point Cloud Data file format
VERSION 0.7
FIELDS x y z rgb
SIZE 4 4 4 4
TYPE F F F F
COUNT 1 1 1 1
WIDTH 987
HEIGHT 1
VIEWPOINT 0 0 0 1 0 0 0
POINTS 987
DATA ascii
-0.021519687 -1.4890087 0.78427553 1.1779175e-40
0.036977746 -1.4846995 0.78331548 1.1779175e-40
-0.061206236 -1.5122753 0.79874492 1.1779175e-40
-0.056383021 -1.5047903 0.7977643 1.1779175e-40
0.08675456 -1.5041422 0.79985863 8.618462e-40
-0.051634341 -1.4981914 0.79631448 1.1779175e-40
-0.047453791 -1.4935869 0.79663301 1.1779175e-40
0.077487037 -1.4937735 0.79537731 1.1779175e-40
0.082034335 -1.4970753 0.79867661 4.9054134e-40
-0.0422436 -1.4876528 0.79715014 1.1779175e-40
-0.037123587 -1.4830583 0.79691905 1.1779175e-40
0.066192083 -1.4822034 0.79741049 3.0290327e-40
0.072796553 -1.487638 0.79716122 3.9546044e-40
-0.033057325 -1.4797388 0.7965399 1.1779175e-40
-0.025785977 -1.4749606 0.79723758 1.1779175e-40
-0.017018605 -1.4712931 0.79570436 1.1779175e-40
-0.0061931442 -1.4714483 0.79104328 1.1779175e-40
0.032378495 -1.4702914 0.79171789 1.1779175e-40
0.046223029 -1.4725704 0.79496282 1.1779175e-40
0.054940127 -1.4747181 0.79737723 3.9474017e-40
0.062165324 -1.4793245 0.7967785 1.1779175e-40
-0.01349289 -1.4688361 0.79769975 1.1779175e-40
-0.0036168694 -1.4666678 0.79610968 1.1779175e-40
0.0057619028 -1.4647665 0.79664636 1.1779175e-40
0.014622676 -1.4641148 0.7970255 1.1779175e-40
0.02495544 -1.4653697 0.79629493 1.1779175e-40
0.035304099 -1.467312 0.79687613 1.1779175e-40
0.042209893 -1.4689617 0.79819608 1.1779175e-40
0.10000551 -1.5386631 0.80848247 7.7541972e-40
-0.064571798 -1.5209515 0.80083948 1.1779175e-40
0.096418314 -1.5230749 0.80487061 8.6545314e-40
-0.062357415 -1.5149739 0.80624753 1.1779175e-40
0.093096159 -1.5150236 0.80413723 8.6329094e-40
-0.056162234 -1.503563 0.80536145 1.1779175e-40
0.088548824 -1.5064058 0.80480278 8.629294e-40
-0.051383466 -1.4961281 0.80437607 1.1779175e-40
-0.04822325 -1.492023 0.80497777 1.1779175e-40
0.077273995 -1.4903781 0.80247557 8.6112453e-40
0.081572793 -1.4955823 0.80537283 8.6256787e-40
-0.043869488 -1.4872791 0.80526257 1.1779175e-40
-0.037732758 -1.481644 0.80504084 1.1779175e-40
0.067321315 -1.4816387 0.80487299 8.6040566e-40
0.073281892 -1.4864298 0.80545074 8.607644e-40
-0.032883242 -1.4780617 0.80434853 1.1779175e-40
-0.025343115 -1.4735576 0.80521899 1.1779175e-40
0.054408308 -1.4730663 0.80503577 7.6604643e-40
0.062789224 -1.4783242 0.80505371 8.59684e-40
-0.014888843 -1.4686636 0.80518615 1.1779175e-40
-0.0045137047 -1.4651723 0.80492681 1.1779175e-40
0.0058171269 -1.4635048 0.80588764 1.1779175e-40
0.014645764 -1.4632297 0.80604607 1.1779175e-40
0.024944192 -1.4639641 0.80562305 1.1779175e-40
0.035263464 -1.465872 0.80452389 2.1034751e-40
0.044497348 -1.4686184 0.80592114 5.7913143e-40
-0.068062618 -1.537904 0.81410986 1.1779175e-40
0.099756256 -1.5360985 0.81508803 7.7541972e-40
0.096174888 -1.5218844 0.81417817 8.6581187e-40
-0.062430482 -1.5151907 0.81612784 1.1779175e-40
0.092820592 -1.5136801 0.81523436 8.6545314e-40
-0.055908602 -1.5031561 0.81589383 1.1779175e-40
0.088002257 -1.5049057 0.81492549 8.6436994e-40
-0.051153198 -1.4958849 0.81479651 1.1779175e-40
-0.048040718 -1.4918464 0.81363416 1.1779175e-40
0.081703119 -1.495499 0.81501126 8.6328954e-40
-0.043369219 -1.4866987 0.81481194 1.1779175e-40
-0.038754497 -1.4822875 0.81558466 1.1779175e-40
0.067925729 -1.4819573 0.81577009 8.6040566e-40
0.074002236 -1.4869885 0.81521767 8.618462e-40
-0.034229603 -1.4788195 0.81413841 1.1779175e-40
-0.025067646 -1.4733452 0.81507242 1.1779175e-40
0.049968112 -1.470688 0.81703627 8.5860219e-40
0.055344485 -1.4734852 0.81443834 8.5932246e-40
0.063428499 -1.478675 0.81421989 8.6040566e-40
-0.014776055 -1.4683106 0.81500024 1.1779175e-40
-0.0048337034 -1.4650151 0.81487525 1.1779175e-40
0.0052804472 -1.4635288 0.81636477 1.1779175e-40
0.014667814 -1.46322 0.81620288 1.1779175e-40
0.02493549 -1.4640098 0.8157537 1.1779175e-40
0.03522227 -1.4657075 0.81478798 5.7913143e-40
0.04406422 -1.4682248 0.81504893 8.5715886e-40
-0.06763307 -1.534449 0.82461864 1.1779175e-40
0.099432051 -1.5335411 0.82510513 8.6653354e-40
0.095917307 -1.5211124 0.82491964 8.6617201e-40
-0.062518097 -1.5156822 0.82580864 1.1779175e-40
0.092589296 -1.51322 0.82577091 8.6545314e-40
-0.055362392 -1.5024015 0.82552785 1.1779175e-40
0.0877809 -1.5043262 0.82549763 8.6436994e-40
-0.050926521 -1.4956857 0.82512826 1.1779175e-40
-0.047830474 -1.4917922 0.82387787 1.1779175e-40
0.079911835 -1.4931173 0.82823634 8.6364967e-40
0.082316861 -1.496285 0.82395065 8.6364967e-40
-0.043172736 -1.4866418 0.82503098 1.1779175e-40
-0.038571477 -1.4822226 0.82578683 1.1779175e-40
0.067785494 -1.4818333 0.82600278 9.5332156e-40
0.073855139 -1.4869404 0.82486689 8.618462e-40
-0.034058891 -1.4787254 0.82435256 1.1779175e-40
-0.025067547 -1.4733696 0.8248108 1.1779175e-40
0.049899165 -1.470705 0.82545781 1.0422732e-39
0.055836268 -1.4737905 0.82485652 8.5932386e-40
0.063302718 -1.4785849 0.82443094 8.6040566e-40
-0.014670749 -1.468241 0.82459545 1.1779175e-40
-0.0058233924 -1.4653945 0.82507253 1.1779175e-40
0.0044487491 -1.463655 0.82604933 1.1779175e-40
0.014689488 -1.4632568 0.82627296 1.1779175e-40
0.024926946 -1.4640859 0.82580727 5.7732796e-40
0.035182886 -1.4657142 0.8248927 2.509832e-39
0.044001371 -1.4681693 0.82463551 1.8684283e-39
-0.067258418 -1.5325958 0.83590931 1.1779175e-40
0.09914615 -1.5324148 0.83600563 8.6689368e-40
0.095668755 -1.5204906 0.83550948 8.6617341e-40
-0.061632685 -1.5138843 0.83428323 1.1779175e-40
0.092361964 -1.5128142 0.83621162 8.6545314e-40
-0.055799119 -1.5031254 0.8339653 1.1779175e-40
0.087568514 -1.5039185 0.83590859 8.6437134e-40
-0.051464666 -1.4966123 0.83647639 1.1779175e-40
-0.047616392 -1.4916328 0.83411789 1.1779175e-40
0.079792358 -1.4929819 0.83507156 8.6364967e-40
0.082898043 -1.4970655 0.83453971 8.6364967e-40
-0.042976245 -1.4865581 0.83520335 1.1779175e-40
-0.03838715 -1.482101 0.83595914 1.1779175e-40
0.067650288 -1.4818411 0.83610147 9.5332156e-40
0.073708005 -1.4868875 0.83446288 8.618462e-40
-0.033890959 -1.4786782 0.83447939 1.1779175e-40
-0.024926217 -1.4733132 0.83491999 1.1779175e-40
0.049815863 -1.470674 0.83553886 9.1331365e-39
0.055736702 -1.4738172 0.834921 3.6179817e-39
0.063180774 -1.4785992 0.8345229 9.5223976e-40
-0.014561711 -1.4682344 0.83465892 1.1779175e-40
-0.0057433504 -1.4655221 0.83504796 1.1779175e-40
0.0045000128 -1.463716 0.83604938 1.1779175e-40
0.014711003 -1.4633001 0.83628011 1.7726271e-39
0.02491837 -1.4641424 0.83581305 7.1051928e-39
0.035144269 -1.4657705 0.83491015 7.5668926e-39
0.043936141 -1.4681697 0.83469462 8.9483851e-39
-0.066936053 -1.5308554 0.84535682 1.1779175e-40
0.098920316 -1.5316916 0.8449198 8.6689368e-40
0.095505796 -1.5201157 0.84251267 8.6617341e-40
-0.062069945 -1.5150799 0.84314841 1.1779175e-40
-0.059944227 -1.5100969 0.84781128 1.1779175e-40
0.093438759 -1.5154527 0.84700978 8.6581187e-40
-0.056826681 -1.5046965 0.84393555 1.1779175e-40
0.087364174 -1.5036607 0.846174 8.6437134e-40
-0.052036881 -1.4975423 0.84607601 1.1779175e-40
-0.047403004 -1.4914618 0.84430212 1.1779175e-40
0.079647236 -1.4929012 0.8435275 8.6328954e-40
0.082709581 -1.4968463 0.84476727 8.6364967e-40
-0.042781163 -1.4864804 0.84531188 1.1779175e-40
-0.038207415 -1.4820627 0.84602493 1.1779175e-40
0.067515396 -1.4818335 0.84614873 9.5332296e-40
0.073554724 -1.4868671 0.8445459 9.536817e-40
-0.033725567 -1.4786692 0.8445251 1.1779175e-40
-0.024785096 -1.4732385 0.84497857 1.1779175e-40
0.049733046 -1.4706434 0.84556001 3.065168e-39
0.055638209 -1.4738669 0.84491384 9.0427429e-39
0.063059911 -1.4786252 0.84454918 2.6070752e-39
-0.014454014 -1.468254 0.84464848 1.1779175e-40
-0.005662967 -1.4656067 0.84498936 1.1779175e-40
0.0045517329 -1.4637251 0.84601933 2.4161931e-39
0.014732427 -1.4633287 0.84623647 8.3923261e-39
0.024909819 -1.4641737 0.84577394 2.2321634e-39
0.03510581 -1.465817 0.84487408 9.4719368e-40
0.043872125 -1.468226 0.84466362 1.2252211e-39
0.098695904 -1.5309728 0.8537786 8.6689368e-40
-0.066550687 -1.5280353 0.85529655 1.1779175e-40
-0.063099317 -1.5174042 0.85407656 1.1779175e-40
0.093893826 -1.5165555 0.85587013 8.6581328e-40
-0.05816872 -1.5070113 0.8544808 1.1779175e-40
0.086864293 -1.5029567 0.85560703 8.6437134e-40
-0.051512361 -1.4968754 0.85547084 1.1779175e-40
-0.047189921 -1.4912707 0.85443515 1.1779175e-40
0.07947465 -1.4928207 0.85361189 8.6328954e-40
0.082524262 -1.4966764 0.85490656 8.6364967e-40
-0.042585149 -1.4863569 0.85538417 1.1779175e-40
-0.03802729 -1.4819899 0.85604948 1.1779175e-40
0.067380622 -1.4818045 0.85614842 1.4132179e-39
0.073402949 -1.4868617 0.85456145 9.536817e-40
-0.03355854 -1.4785913 0.85454845 1.1779175e-40
-0.024645062 -1.4731712 0.85497314 1.1779175e-40
0.049651366 -1.4706454 0.8555041 9.5079922e-40
0.055540528 -1.4739275 0.8548426 3.8020128e-39
0.062939532 -1.4786421 0.85452133 8.1236705e-39
-0.01434737 -1.4682899 0.85457045 1.1779175e-40
-0.0055831401 -1.4656949 0.85487109 2.2321634e-39
0.0046033575 -1.4637094 0.8559441 8.3923261e-39
0.014753867 -1.4633307 0.85614878 8.7603869e-39
0.024901316 -1.4642054 0.85567617 4.3468951e-39
0.035067495 -1.4658557 0.85478419 8.5535819e-40
0.04380852 -1.4682822 0.85457456 8.5715886e-40
0.098472707 -1.5302582 0.86258918 8.6689368e-40
-0.066144928 -1.5248451 0.86535871 1.1779175e-40
0.098340139 -1.5298454 0.86784387 8.6689368e-40
-0.062801383 -1.5165464 0.86459178 1.1779175e-40
0.093061313 -1.5148408 0.86413783 8.6545174e-40
-0.057908256 -1.5065346 0.86475915 1.1779175e-40
0.086999066 -1.5033125 0.86476439 8.6473147e-40
-0.051949095 -1.4975474 0.86377829 1.1779175e-40
-0.047723629 -1.4920192 0.86567271 1.1779175e-40
0.079303093 -1.4927406 0.86363608 9.5512503e-40
0.082340501 -1.4965175 0.86497897 8.6364967e-40
-0.042385425 -1.4861244 0.86545366 1.1779175e-40
-0.037841715 -1.4817611 0.86609656 1.1779175e-40
0.067246638 -1.4817759 0.86608887 5.1827836e-39
0.073252164 -1.486858 0.86451733 1.1373527e-39
-0.033390053 -1.4784521 0.86454487 1.1779175e-40
-0.024506075 -1.4731107 0.86490488 1.1779175e-40
0.049571499 -1.4707164 0.86535317 9.5115936e-40
0.055443205 -1.4739794 0.86471814 1.1355506e-39
0.062819637 -1.4786509 0.86443973 9.3189697e-39
-0.014236152 -1.468354 0.86496639 1.6804315e-39
-0.0055027432 -1.4657298 0.86472416 7.1970283e-39
0.0046545607 -1.4637026 0.86580563 4.5309248e-39
0.014775109 -1.463343 0.86599743 2.50803e-39
0.024892872 -1.4642506 0.86551327 5.5421929e-39
0.03502962 -1.4659144 0.86462569 2.6016675e-39
0.043741465 -1.4683276 0.8649804 8.5716026e-40
-0.065854102 -1.5235478 0.87438101 1.1779175e-40
0.098171473 -1.529439 0.8747465 8.6689368e-40
-0.062483028 -1.5153042 0.87523174 1.1779175e-40
0.093179017 -1.5152668 0.8735919 8.6545174e-40
-0.057647895 -1.506032 0.87498587 1.1779175e-40
0.08680395 -1.5031866 0.87478608 8.6473147e-40
-0.052962344 -1.4989077 0.87367749 1.1779175e-40
-0.048287347 -1.4927301 0.87521434 1.1779175e-40
0.079132549 -1.4926605 0.8736009 9.5512503e-40
0.082158767 -1.4963816 0.87497884 8.640098e-40
-0.042186618 -1.4858862 0.87546462 1.1779175e-40
-0.037657008 -1.4815274 0.8760851 1.1779175e-40
0.067113444 -1.4817473 0.8759709 7.2975154e-39
0.073092975 -1.4868342 0.87497282 1.2295483e-39
-0.033223271 -1.4783311 0.87447149 1.1779175e-40
-0.025254067 -1.4735289 0.87436354 1.1779175e-40
-0.019938681 -1.4707043 0.87682271 1.1779175e-40
0.04949199 -1.4707817 0.87514824 9.5115936e-40
0.055346113 -1.4740176 0.87454355 9.5152089e-40
0.062700532 -1.4786631 0.87429816 7.848164e-39
-0.014124562 -1.4683732 0.87532341 6.8293262e-39
-0.0054225987 -1.465754 0.87452531 2.2321634e-39
0.0047055339 -1.4636922 0.87561107 4.162864e-39
0.014796209 -1.4633574 0.87578732 1.1290598e-39
0.024884487 -1.4642984 0.87529182 1.0372243e-39
0.034991898 -1.4659663 0.87441361 6.6474586e-39
0.043675184 -1.4683894 0.87531495 8.5716026e-40
-0.065514803 -1.5221237 0.88507098 1.1779175e-40
0.097919792 -1.5288328 0.88504738 8.6689368e-40
-0.062161703 -1.5139785 0.88583916 1.1779175e-40
0.092959613 -1.5150026 0.88367629 8.6545174e-40
-0.057389248 -1.5055338 0.88514549 1.1779175e-40
0.086608708 -1.5030328 0.88476229 8.6473147e-40
-0.052722264 -1.4984821 0.88378239 1.1779175e-40
-0.048068155 -1.4924302 0.88522297 1.1779175e-40
0.078962721 -1.4925734 0.88351035 9.5512503e-40
0.081978351 -1.4962519 0.88491607 8.640098e-40
-0.04198863 -1.4856404 0.88541859 1.1779175e-40
-0.037477542 -1.4813939 0.88596153 1.1779175e-40
0.068165697 -1.4827113 0.88593948 5.5504858e-39
0.073790587 -1.4875634 0.88513535 1.0455186e-39
-0.033058684 -1.478242 0.88432246 1.1779175e-40
-0.025686849 -1.4737402 0.88501614 1.1779175e-40
-0.019835416 -1.4706635 0.88498163 1.1779175e-40
0.049412936 -1.4708467 0.88488698 9.5115936e-40
0.055244099 -1.4740571 0.88485289 9.5151949e-40
0.062582545 -1.478691 0.88409132 7.5722988e-39
-0.013724791 -1.4683001 0.88555539 6.2775957e-39
-0.0053429725 -1.4657817 0.88426781 1.1779175e-40
0.0047562285 -1.4636809 0.88535959 4.3468937e-39
0.014817188 -1.4633719 0.88552004 9.4503008e-40
0.024876153 -1.4643475 0.88501304 1.1779175e-40
0.034954414 -1.4660221 0.88414282 6.8314884e-39
0.043320846 -1.4683522 0.88552839 1.6847573e-39
-0.065178119 -1.5207105 0.8956787 1.1779175e-40
0.097670645 -1.5282477 0.89527196 8.6689508e-40
-0.061876107 -1.5132436 0.89607888 1.1779175e-40
0.092741452 -1.514738 0.89369994 8.6545174e-40
-0.057131469 -1.5050244 0.89524668 1.1779175e-40
0.086414933 -1.5028864 0.89467543 8.6437134e-40
-0.052483726 -1.4980592 0.89382273 1.1779175e-40
-0.04785062 -1.4921385 0.89516622 1.1779175e-40
0.078766599 -1.492491 0.89498603 9.547649e-40
0.081799179 -1.4961272 0.89479166 8.640098e-40
-0.041790608 -1.4853684 0.89532524 1.1779175e-40
-0.037300337 -1.4812899 0.89576429 1.1779175e-40
0.068337776 -1.4829396 0.89492947 5.2742576e-39
0.074266948 -1.4880942 0.89557391 9.536831e-40
-0.032893691 -1.478117 0.89413339 1.1779175e-40
-0.025537625 -1.4736568 0.89532417 1.1779175e-40
-0.019713188 -1.4706506 0.89470291 1.1779175e-40
0.049334344 -1.4709111 0.89456987 9.5115936e-40
0.055143349 -1.4741122 0.89509255 9.5151809e-40
0.062664174 -1.4788628 0.89467955 7.8481654e-39
-0.013904531 -1.468423 0.89584011 5.4503574e-39
-0.0055461926 -1.4658724 0.89456546 1.1779175e-40
0.0048065968 -1.4636725 0.89504939 4.3468937e-39
0.014838012 -1.4633961 0.89519107 9.4503008e-40
0.024867876 -1.464398 0.89467746 1.1779175e-40
0.035201773 -1.4661431 0.89442664 6.1875623e-39
0.043544758 -1.4685149 0.89579326 2.2364892e-39
-0.06889151 -1.5430845 0.90789449 1.1779175e-40
0.097425245 -1.5277081 0.90540951 8.6689368e-40
-0.0632248 -1.5160235 0.90617245 1.1779175e-40
0.092524618 -1.5144749 0.90366215 8.6545174e-40
-0.056874346 -1.5044998 0.90529138 1.1779175e-40
0.086428113 -1.503089 0.90528679 8.6437134e-40
-0.052246708 -1.4976391 0.90379924 1.1779175e-40
-0.047949426 -1.4922302 0.90453547 1.1779175e-40
0.078573458 -1.4924518 0.90636557 9.5440336e-40
0.081620984 -1.4960008 0.90460974 8.640098e-40
-0.042230286 -1.4857578 0.90553534 1.1779175e-40
-0.037122585 -1.4811476 0.90552807 1.1779175e-40
0.068202525 -1.4829106 0.90464801 5.5501242e-39
0.074113876 -1.4880466 0.90531754 9.536845e-40
-0.032924403 -1.478111 0.90474576 1.1779175e-40
-0.025396744 -1.4735703 0.90503365 1.1779175e-40
-0.019591782 -1.4706413 0.9043656 1.1779175e-40
0.049256075 -1.4709691 0.90420055 9.5115796e-40
0.054753549 -1.4740018 0.90524471 9.5115936e-40
0.062327433 -1.4787111 0.90513617 7.2042394e-39
-0.013800027 -1.4684132 0.90548801 5.3581632e-39
-0.0051742122 -1.465776 0.9046824 1.1779175e-40
0.0048565939 -1.4636731 0.9046784 4.3468951e-39
0.014858682 -1.4634293 0.90480191 9.4503008e-40
0.02485962 -1.4644426 0.90428919 1.1779175e-40
0.034873053 -1.4661399 0.9050318 5.8198616e-39
0.043483134 -1.4685777 0.90540516 2.3283261e-39
-0.068432674 -1.537678 0.91539019 1.1779175e-40
0.09718927 -1.5273256 0.91540819 8.6689368e-40
-0.06293533 -1.5152578 0.91630673 1.1779175e-40
0.092310213 -1.5142363 0.91355228 8.6545314e-40
-0.056617301 -1.5039474 0.91528636 1.1779175e-40
0.085998766 -1.502583 0.91594791 8.6473007e-40
-0.052010268 -1.4972034 0.91372108 1.1779175e-40
-0.048912775 -1.4932319 0.91565925 1.1779175e-40
0.078409828 -1.4924407 0.91604567 9.5440336e-40
0.081443824 -1.4958749 0.91436958 8.640098e-40
-0.044392124 -1.4879292 0.91503865 1.1779175e-40
-0.038435843 -1.4822153 0.91463822 1.1779175e-40
0.068067767 -1.4828725 0.91431451 5.9178249e-39
0.073961541 -1.487995 0.91500646 9.536845e-40
-0.032538716 -1.4778467 0.91519141 1.1779175e-40
-0.024959883 -1.473336 0.91518432 1.1779175e-40
-0.019470781 -1.4706217 0.91397738 1.1779175e-40
0.049178015 -1.4710141 0.91378254 9.5115796e-40
0.054944351 -1.4742213 0.91538495 9.5151809e-40
0.06221002 -1.4786824 0.91477919 7.0205684e-39
-0.013695434 -1.4683764 0.91509318 5.2663277e-39
-0.0048270882 -1.4656863 0.9152723 1.1779175e-40
0.0049061901 -1.4636859 0.91424561 4.4387306e-39
0.014879129 -1.4634776 0.91434956 8.5319458e-40
0.025179433 -1.464535 0.91431099 1.1779175e-40
0.034547191 -1.4661267 0.91557443 5.1759341e-39
0.043421831 -1.4686388 0.91496301 2.4205203e-39
-0.067921638 -1.5328041 0.92583919 1.1779175e-40
0.09695714 -1.5269927 0.92532247 8.6689368e-40
-0.062651291 -1.5145565 0.92634439 1.1779175e-40
0.092065141 -1.5140309 0.92497957 8.6581328e-40
-0.056362387 -1.5034069 0.92521256 1.1779175e-40
0.086125977 -1.502929 0.92512071 8.6437134e-40
-0.051775504 -1.4967738 0.92357844 1.1779175e-40
-0.048684526 -1.4927362 0.92552203 1.1779175e-40
0.078245886 -1.492397 0.92568541 9.5440336e-40
0.082005829 -1.4968002 0.92517024 8.6364967e-40
-0.04418711 -1.4876294 0.9247908 1.1779175e-40
-0.038255442 -1.4820677 0.92429715 1.1779175e-40
0.068130814 -1.48299 0.92475939 5.6419597e-39
0.073810004 -1.4879411 0.92464018 9.536845e-40
-0.032376781 -1.4777236 0.92481875 1.1779175e-40
-0.025102938 -1.4733858 0.92534488 1.1779175e-40
-0.019326735 -1.470469 0.92518246 1.1779175e-40
0.04908821 -1.4711027 0.92487276 9.5043769e-40
0.054849796 -1.4742421 0.924927 9.5115796e-40
0.061876964 -1.4785141 0.92511463 6.4688365e-39
-0.013590493 -1.4683044 0.92466003 5.1744922e-39
-0.0050001908 -1.465746 0.92591435 1.1779175e-40
0.0046300674 -1.4637623 0.9242124 4.162864e-39
0.014899307 -1.4635513 0.92383015 8.5319318e-40
0.024557017 -1.4645038 0.9252578 1.1779175e-40
0.034794226 -1.4662312 0.92567647 5.7280261e-39
0.043361016 -1.4687052 0.92446357 2.4208804e-39
-0.067491949 -1.5292366 0.93559581 1.1779175e-40
0.096719414 -1.5265228 0.93523979 8.6653494e-40
-0.062372714 -1.5139228 0.93628579 1.1779175e-40
0.091827549 -1.5139523 0.93627262 8.6617341e-40
-0.056108166 -1.5028528 0.9350825 1.1779175e-40
0.087144323 -1.5047878 0.9357664 8.6545034e-40
-0.05150228 -1.4962517 0.93500954 1.1779175e-40
-0.048461359 -1.4923173 0.93528646 1.1779175e-40
0.07807827 -1.4922348 0.93532568 9.5440477e-40
0.082597412 -1.4978005 0.93427962 8.640098e-40
-0.043984443 -1.4873557 0.93447137 1.1779175e-40
-0.038271625 -1.482111 0.93471223 1.1779175e-40
0.067776926 -1.4827653 0.9350788 5.7337952e-39
0.073854141 -1.4880086 0.9350664 9.536831e-40
-0.031988494 -1.4772614 0.93522835 1.1779175e-40
-0.02496157 -1.4732111 0.93492085 1.1779175e-40
-0.019181544 -1.470245 0.93634844 5.5421929e-39
0.048998553 -1.4711685 0.93590409 9.5043769e-40
0.055037588 -1.4744225 0.93496877 2.8822187e-39
0.061958924 -1.4786302 0.93547565 9.962537e-39
-0.013486044 -1.4682288 0.93417263 5.0826567e-39
-0.0049221464 -1.4657303 0.93538094 1.1779175e-40
0.0052975765 -1.4637436 0.93508404 5.2663277e-39
0.014922682 -1.4636407 0.93481952 9.4503008e-40
0.024832496 -1.4646012 0.93592691 1.1779175e-40
0.034757774 -1.466274 0.93511802 5.635829e-39
0.043581504 -1.4688715 0.93449152 2.2364906e-39
-0.067118756 -1.5265692 0.94485903 1.1779175e-40
0.096460968 -1.5256153 0.94529563 7.7397778e-40
-0.06209461 -1.5132704 0.94617265 1.1779175e-40
0.089986518 -1.5105879 0.94899637 8.6473007e-40
0.091945462 -1.5143898 0.9453395 8.6545174e-40
-0.056182336 -1.5028865 0.94430035 1.1779175e-40
0.08574421 -1.5031102 0.94546539 8.6509301e-40
-0.051981956 -1.496703 0.94670093 1.1779175e-40
-0.048243862 -1.4919891 0.94494838 1.1779175e-40
0.077913307 -1.4921163 0.94488889 9.5512503e-40
0.081510827 -1.4964359 0.94413215 8.6401121e-40
-0.043981157 -1.4873492 0.94486904 1.1779175e-40
-0.037873067 -1.4818811 0.94496799 1.1779175e-40
0.067425728 -1.4825337 0.9453336 1.5043331e-39
0.073478848 -1.4876833 0.94538909 9.5404323e-40
-0.032031067 -1.4774894 0.94546884 1.1779175e-40
-0.025104951 -1.4733242 0.94493043 1.1779175e-40
-0.01906666 -1.4703566 0.94571233 5.726224e-39
0.048921969 -1.471213 0.94530553 6.2833635e-39
0.05465069 -1.4742677 0.944902 8.7665162e-39
0.061844349 -1.4786282 0.94493061 4.7218055e-39
-0.013630225 -1.4682907 0.94470161 5.3581632e-39
-0.0048445677 -1.4657154 0.94479251 3.2434314e-39
0.0050680451 -1.463851 0.94568181 6.5534609e-39
0.014945881 -1.4637384 0.94573551 3.9329824e-40
0.024824468 -1.4646515 0.94530016 1.1779175e-40
0.034721568 -1.466321 0.94450378 5.3592436e-39
0.043228213 -1.4687655 0.94490302 3.6154593e-39
-0.066740684 -1.52449 0.95538348 1.1779175e-40
0.096167445 -1.5239819 0.9556132 8.6617341e-40
-0.063394867 -1.5156075 0.95622188 1.1779175e-40
0.089837082 -1.5101446 0.95553613 8.6473147e-40
0.092957117 -1.5163506 0.95588541 8.6509161e-40
-0.060241714 -1.5096335 0.95576859 1.1779175e-40
-0.057144374 -1.5043603 0.95501477 1.1779175e-40
0.086772293 -1.5047603 0.95483178 8.6437134e-40
-0.052547429 -1.4975028 0.95500565 1.1779175e-40
-0.048033167 -1.4917755 0.95449883 1.1779175e-40
0.07775154 -1.4920563 0.95436925 9.5512503e-40
0.082221866 -1.497744 0.95489502 8.6436994e-40
-0.043561477 -1.4870425 0.95511812 1.1779175e-40
-0.037479706 -1.4816998 0.95513374 1.1779175e-40
0.067492478 -1.4827027 0.95556235 9.5296283e-40
0.073329426 -1.4876122 0.95485449 9.5404323e-40
-0.03188305 -1.4776584 0.95478243 1.1779175e-40
-0.024676457 -1.4734148 0.95520246 1.1779175e-40
-0.018956242 -1.4706001 0.9549616 1.1779175e-40
0.048845679 -1.4712502 0.95465726 7.1106004e-39
0.054552186 -1.4742742 0.9548012 2.8822187e-39
0.06173062 -1.4786333 0.95432824 9.5223976e-40
-0.012973472 -1.46822 0.95545357 8.1168196e-39
-0.0050452864 -1.46579 0.9547292 6.4616254e-39
0.0051156976 -1.4639236 0.95498604 7.6135769e-40
0.014965613 -1.4638325 0.95502883 1.1779175e-40
0.024816483 -1.4647015 0.95462006 1.1779175e-40
0.034964982 -1.4664166 0.95443469 5.6354689e-39
0.04287868 -1.4686902 0.9552334 9.2242503e-39
0.099391967 -1.5384268 0.96826875 8.6689368e-40
-0.066400826 -1.5230118 0.9655599 1.1779175e-40
0.095925897 -1.5233511 0.96540928 8.6617341e-40
-0.063120745 -1.5150532 0.9659493 1.1779175e-40
0.092722863 -1.5156616 0.96567774 8.6545314e-40
-0.060069799 -1.5093446 0.96221316 1.1779175e-40
-0.058119964 -1.5061111 0.96555567 1.1779175e-40
0.088093102 -1.5069333 0.96487135 8.6473007e-40
-0.052524149 -1.4975958 0.96527356 1.1779175e-40
-0.047826141 -1.4916124 0.96396953 1.1779175e-40
0.077567972 -1.4920889 0.96531242 9.5512503e-40
0.082241893 -1.4978321 0.96516675 8.640098e-40
-0.043145861 -1.4867517 0.96529162 1.1779175e-40
-0.037501089 -1.4817982 0.96533108 1.1779175e-40
0.067362048 -1.4826732 0.96493101 9.5260129e-40
0.072961248 -1.4873585 0.96501511 9.536831e-40
-0.031918246 -1.4777039 0.9649877 1.1779175e-40
-0.024245674 -1.4733227 0.96549493 1.1779175e-40
-0.018843014 -1.470724 0.96421599 1.1779175e-40
0.04876864 -1.4712242 0.96398497 1.0422732e-39
0.054165978 -1.4741591 0.9651103 9.5151949e-40
0.061812613 -1.4787848 0.96449178 9.5187963e-40
-0.013153717 -1.4684179 0.96528029 1.6807902e-39
-0.0044181417 -1.4656457 0.96543694 2.0962724e-40
0.0051629823 -1.4640032 0.96423459 1.1779175e-40
0.014985227 -1.4639269 0.96426994 1.1779175e-40
0.025208218 -1.4648069 0.96474284 1.1779175e-40
0.034385577 -1.4663315 0.96511978 9.4575035e-40
0.043098506 -1.4687992 0.96510434 2.1446551e-39
0.099193811 -1.5374075 0.97504812 8.6725521e-40
-0.066083394 -1.5218762 0.97551328 1.1779175e-40
0.095698021 -1.5229663 0.97503632 8.6581328e-40
-0.06284941 -1.51452 0.97560662 1.1779175e-40
0.092505425 -1.5152946 0.97526598 8.6581187e-40
-0.058202151 -1.5063745 0.97451586 1.1779175e-40
0.087885194 -1.5064749 0.97447133 8.6473007e-40
-0.052068468 -1.497095 0.97552299 1.1779175e-40
-0.047584452 -1.4913874 0.97496253 1.1779175e-40
0.077374905 -1.4918442 0.97631073 9.547635e-40
0.081831805 -1.4972677 0.97544581 8.6364827e-40
-0.043147575 -1.4867821 0.97547865 1.1779175e-40
-0.037326556 -1.4816613 0.97468901 1.1779175e-40
0.067425892 -1.482777 0.97506893 9.5296143e-40
0.073010989 -1.4875058 0.9751541 9.5404183e-40
-0.031544149 -1.4774805 0.97503263 1.1779175e-40
-0.024390511 -1.4734322 0.97532356 1.1779175e-40
-0.018708073 -1.4707401 0.97500443 1.1779175e-40
0.048680626 -1.4712633 0.97476697 9.5115936e-40
0.05491947 -1.4747187 0.97535741 9.5115936e-40
0.061486881 -1.4786826 0.97448969 9.5223976e-40
-0.01305459 -1.4684496 0.97451043 1.1779175e-40
-0.0045903963 -1.4657311 0.97574741 1.1779175e-40
0.0052174535 -1.4641188 0.97494715 1.1779175e-40
0.015007949 -1.4640392 0.97498345 1.1779175e-40
0.024398314 -1.4647497 0.97531718 1.1779175e-40
0.034601942 -1.4664294 0.97542977 3.0254454e-40
0.043317061 -1.468967 0.97488928 9.4935589e-40
0.0989177 -1.5362624 0.98499703 8.6725521e-40
-0.065787435 -1.5210708 0.98525661 1.1779175e-40
0.095475346 -1.5226603 0.98457104 8.6653354e-40
-0.06257987 -1.5139912 0.98520213 1.1779175e-40
0.092298806 -1.5151272 0.98470968 8.6545174e-40
-0.057717793 -1.5056741 0.98482519 1.1779175e-40
0.08744397 -1.5056163 0.98485047 8.6473147e-40
-0.051846649 -1.4968472 0.98493004 1.1779175e-40
-0.047336023 -1.4909911 0.98595953 1.1779175e-40
0.077215031 -1.4917539 0.9856239 9.5440477e-40
0.08165694 -1.4971234 0.98480886 8.6364967e-40
-0.042949852 -1.4864841 0.98486876 1.1779175e-40
-0.037342489 -1.4816366 0.98481983 1.1779175e-40
0.06708061 -1.4825853 0.98505825 9.5260129e-40
0.072864614 -1.4874433 0.9844448 9.5404323e-40
-0.032106645 -1.4778013 0.98411381 1.1779175e-40
-0.025673309 -1.4741154 0.98499155 1.1779175e-40
-0.018573314 -1.470733 0.9857356 1.1779175e-40
0.047884405 -1.4710916 0.98633856 9.5151809e-40
0.05578598 -1.4753723 0.98484325 9.5151949e-40
0.062788047 -1.4796009 0.98484737 9.5187963e-40
-0.013200575 -1.4685979 0.9847458 1.1779175e-40
-0.0045152269 -1.4657431 0.98491669 1.1779175e-40
0.0052715526 -1.4642364 0.98559242 1.1779175e-40
0.015030529 -1.4641515 0.98563057 1.1779175e-40
0.024790147 -1.4648594 0.98531312 1.1779175e-40
0.034566969 -1.4665065 0.9845742 3.9473877e-40
0.042408824 -1.4687541 0.98509216 9.4935589e-40
-0.069407903 -1.5428524 0.99788862 1.1779175e-40
0.098687373 -1.5359741 0.99451762 8.6725661e-40
-0.065511696 -1.5205768 0.99480438 1.1779175e-40
0.095275916 -1.522796 0.99386114 8.6653494e-40
-0.062315125 -1.5135196 0.99471384 1.1779175e-40
0.092077486 -1.5146284 0.99423999 8.6545174e-40
-0.057668377 -1.5055356 0.99504524 1.1779175e-40
0.087657012 -1.506184 0.99564826 8.6509161e-40
-0.051622182 -1.4965224 0.99431491 1.1779175e-40
-0.047844432 -1.491624 0.99643373 1.1779175e-40
0.078209676 -1.4930851 0.99610835 9.547649e-40
0.081782058 -1.4972358 0.99369943 8.6364967e-40
-0.042945299 -1.4863775 0.99499285 1.1779175e-40
-0.036945727 -1.481236 0.99483544 1.1779175e-40
0.066738717 -1.482415 0.99497378 9.5296143e-40
0.07291428 -1.4876108 0.99445629 9.5404323e-40
-0.033331536 -1.4785299 0.99601686 1.1779175e-40
-0.025522705 -1.4739807 0.99496537 1.1779175e-40
-0.018455822 -1.4706317 0.99491781 1.1779175e-40
0.047116082 -1.4709072 0.99479657 9.5115796e-40
0.055169147 -1.475189 0.99508715 9.5151949e-40
0.062672906 -1.4795996 0.99402523 9.5187963e-40
-0.012834423 -1.4684829 0.9948523 1.1779175e-40
-0.0051937653 -1.4659795 0.99503666 1.1779175e-40
0.0053175967 -1.4643407 0.99465942 1.1779175e-40
0.015049762 -1.4642482 0.99470031 1.1779175e-40
0.024782337 -1.4649214 0.99440265 1.1779175e-40
0.034526024 -1.4665589 0.9951933 3.9473877e-40
0.041502234 -1.4685532 0.9958325 9.4863562e-40
-0.068947308 -1.538097 1.0060881 1.1779175e-40
0.098504439 -1.537273 1.0048761 8.6761675e-40
-0.065283187 -1.5201675 1.0027164 1.1779175e-40
0.094988167 -1.5218142 1.0051097 8.6617341e-40
-0.062824637 -1.5147505 1.0049933 1.1779175e-40
0.091818757 -1.5140022 1.005302 8.6545174e-40
-0.057615429 -1.5053428 1.005224 1.1779175e-40
0.087230682 -1.5056038 1.0057724 8.6473147e-40
-0.052876305 -1.4981714 1.0043298 1.1779175e-40
-0.048388556 -1.4923595 1.0052795 1.1779175e-40
0.078348406 -1.4933214 1.0048693 9.547649e-40
0.082765959 -1.4985832 1.0041548 8.6473007e-40
-0.042531073 -1.4859787 1.004963 1.1779175e-40
-0.038188882 -1.4821421 1.0050899 1.1779175e-40
0.066806488 -1.482581 1.0049014 9.5296003e-40
0.072336592 -1.4872392 1.0050737 9.536831e-40
-0.033673786 -1.4787674 1.0056734 1.1779175e-40
-0.025044402 -1.4737263 1.0052205 1.1779175e-40
-0.018339006 -1.4705309 1.004047 1.1779175e-40
0.047239799 -1.4710654 1.0046774 9.5079782e-40
0.055793516 -1.4756544 1.0053188 9.5115936e-40
0.062539324 -1.4795948 1.0046674 9.5187963e-40
-0.014125903 -1.4689356 1.0047388 1.1779175e-40
-0.0053457278 -1.4661068 1.0051043 1.1779175e-40
0.0053708684 -1.4644715 1.0051689 1.1779175e-40
0.015072055 -1.4643613 1.0052165 1.1779175e-40
0.024773275 -1.4649924 1.0049423 1.1779175e-40
0.03448521 -1.4666003 1.0057514 3.9473877e-40
0.041447774 -1.4685873 1.00489 9.4899575e-40
-0.068518668 -1.5352167 1.0165472 1.1779175e-40
0.098070286 -1.5329627 1.0159261 8.6689368e-40
0.094727986 -1.5213542 1.0160637 8.6581328e-40
-0.063328035 -1.5159127 1.0152426 1.1779175e-40
0.091586538 -1.5138994 1.0160723 8.6581187e-40
-0.057122588 -1.5043855 1.0154406 1.1779175e-40
0.087037034 -1.5053515 1.0150393 8.6509021e-40
-0.052612908 -1.4978011 1.0151422 1.1779175e-40
-0.047953282 -1.4918646 1.0152475 1.1779175e-40
0.077966414 -1.4929922 1.0147746 9.5512503e-40
0.082559317 -1.4983828 1.0148994 8.640098e-40
-0.042123366 -1.4856539 1.0148357 1.1779175e-40
-0.038012967 -1.4819708 1.0142359 1.1779175e-40
0.066874161 -1.4827769 1.0147562 9.5296003e-40
0.07238885 -1.4874214 1.0149544 9.536831e-40
-0.03370535 -1.4788508 1.0155557 1.1779175e-40
-0.025547534 -1.47396 1.0150851 1.1779175e-40
-0.018204641 -1.4704511 1.014614 1.1779175e-40
0.046761025 -1.4709759 1.0150343 9.5079782e-40
0.055474263 -1.4755546 1.0151021 9.5151949e-40
0.062407549 -1.4796247 1.0152284 9.5187963e-40
-0.014006678 -1.4689004 1.0152748 1.1779175e-40
-0.0056622233 -1.4663712 1.0148581 1.1779175e-40
0.005422113 -1.4647406 1.015555 1.1779175e-40
0.015094088 -1.4644942 1.01566 1.1779175e-40
0.024764253 -1.4650596 1.0154186 1.1779175e-40
0.035004325 -1.4668308 1.0149615 7.6424296e-40
0.041854545 -1.468825 1.0143088 9.5007615e-40
-0.068192855 -1.5333036 1.0250028 1.1779175e-40
0.09785255 -1.5321479 1.0239338 8.6653354e-40
0.094499446 -1.5208201 1.0254465 8.6581328e-40
-0.063011535 -1.5152317 1.0261908 1.1779175e-40
0.091391586 -1.5138718 1.025221 8.6581187e-40
-0.056873251 -1.5038551 1.0247613 1.1779175e-40
0.086620413 -1.5048681 1.0249935 8.6509161e-40
-0.052358616 -1.4975761 1.025824 1.1779175e-40
-0.047944192 -1.4919596 1.0251236 1.1779175e-40
0.077999115 -1.4930798 1.0246612 9.547635e-40
0.082356967 -1.4982544 1.0255454 9.5512503e-40
-0.042138029 -1.4859079 1.0246215 1.1779175e-40
-0.03781154 -1.4818323 1.0248126 1.1779175e-40
0.066322811 -1.4824383 1.0252036 9.5296003e-40
0.072436355 -1.487496 1.0248207 9.536831e-40
-0.033549089 -1.4788381 1.0245632 1.1779175e-40
-0.025075052 -1.4738439 1.0251526 1.1779175e-40
-0.018077755 -1.4706069 1.0250157 1.1779175e-40
0.046887357 -1.4712287 1.0247551 9.5079782e-40
0.054863777 -1.475359 1.0251597 9.5151949e-40
0.062295545 -1.4796591 1.0242211 9.5187963e-40
-0.013890264 -1.4689445 1.0257119 1.1779175e-40
-0.005576523 -1.4666228 1.025196 1.1779175e-40
0.0051467596 -1.465332 1.0247099 1.1779175e-40
0.015111079 -1.4649503 1.0244135 1.1779175e-40
0.025074065 -1.4653296 1.0247108 3.9437864e-40
0.035795737 -1.4672782 1.0249209 8.5680012e-40
0.042712081 -1.4693879 1.0255264 9.5079782e-40
-0.067919701 -1.5329168 1.0343196 1.1779175e-40
0.097549625 -1.5307842 1.0346526 8.6761535e-40
0.095075108 -1.5228226 1.035284 8.6653354e-40
-0.062758513 -1.5149397 1.0353936 1.1779175e-40
0.091191173 -1.5137058 1.0343739 8.6545174e-40
-0.056628276 -1.5040503 1.0352348 1.1779175e-40
0.086835146 -1.5054739 1.0355214 8.6509301e-40
-0.052165132 -1.4978346 1.0347384 1.1779175e-40
-0.047960851 -1.4925978 1.0347197 1.1779175e-40
0.07803376 -1.4932432 1.0344578 9.5512503e-40
0.08218684 -1.4981986 1.0345913 9.5656557e-40
-0.04193851 -1.4861063 1.0350105 1.1779175e-40
-0.036484525 -1.4814916 1.0359994 1.1779175e-40
0.066391312 -1.4826078 1.0349485 9.5260129e-40
0.071864091 -1.4870819 1.0352534 9.5404323e-40
-0.032922108 -1.4787755 1.0340348 1.1779175e-40
-0.024618873 -1.4740815 1.0350115 1.1779175e-40
-0.017021053 -1.4707235 1.0363513 1.1779175e-40
0.045978971 -1.4714025 1.0356776 9.5187963e-40
0.055487804 -1.4760196 1.0351291 9.5187963e-40
0.062167816 -1.479775 1.0346172 9.5223976e-40
-0.013528727 -1.4692299 1.0339085 1.1779175e-40
-0.0054961205 -1.4671108 1.0353752 1.1779175e-40
0.0057833921 -1.4661258 1.0345981 1.1779175e-40
0.015129308 -1.4657921 1.0344402 1.1779175e-40
0.024473511 -1.4658554 1.0347098 6.7132706e-40
0.035756901 -1.4679112 1.035045 9.5007615e-40
0.042671055 -1.4698801 1.0327516 9.5079782e-40
-0.068213165 -1.5439371 1.0437219 1.1779175e-40
0.097732127 -1.5407569 1.0449458 9.6738079e-40
-0.067966275 -1.5371088 1.0402838 1.1779175e-40
0.097567782 -1.5354714 1.0424407 8.7049922e-40
-0.064326286 -1.5244055 1.0467449 1.1779175e-40
0.094175167 -1.5237422 1.0454973 9.6377665e-40
-0.061712455 -1.5154051 1.0439427 1.1779175e-40
-0.058005437 -1.5103203 1.0477386 1.1779175e-40
0.087983362 -1.5113025 1.0488496 1.0563324e-39
0.091025405 -1.5149274 1.0444318 9.6161445e-40
-0.055428829 -1.5051302 1.0455079 1.1779175e-40
0.085418053 -1.5049943 1.0455617 9.6161305e-40
-0.05201669 -1.4989547 1.043264 1.1779175e-40
-0.046721317 -1.4934034 1.045771 1.1779175e-40
0.07682474 -1.49377 1.045625 9.5981098e-40
0.082059599 -1.4991552 1.0431839 9.5908931e-40
-0.041526638 -1.4874794 1.0442747 1.1779175e-40
-0.034943815 -1.4827695 1.0456764 1.1779175e-40
0.065129787 -1.4831954 1.0455055 9.5764877e-40
0.071671486 -1.4879111 1.0441015 9.5764877e-40
-0.031874318 -1.479264 1.0422469 1.1779175e-40
-0.024843235 -1.4760511 1.0450202 3.0254314e-40
-0.015443569 -1.4718068 1.0456283 1.1779175e-40
-0.0095473416 -1.4704714 1.0487403 9.4827409e-40
0.038014133 -1.4705588 1.0467451 9.547635e-40
0.045648932 -1.4727815 1.0454556 9.5404323e-40
0.054803941 -1.4767541 1.0450321 9.5512363e-40
0.062080644 -1.4799867 1.0419548 9.5260129e-40
-0.01235182 -1.4697139 1.0416905 1.1779175e-40
-0.0051597464 -1.4683636 1.0448877 3.9473877e-40
0.0055560074 -1.4671376 1.0456781 2.1070905e-40
0.015149426 -1.4669318 1.0457617 3.9618211e-40
0.024742205 -1.4675251 1.0455217 8.6040426e-40
0.034355707 -1.4689004 1.0434928 9.5296003e-40
0.093786046 -1.5547562 1.0548015 9.6810386e-40
-0.06512484 -1.5448922 1.0539768 1.1779175e-40
0.093377411 -1.544763 1.0555296 9.6738219e-40
-0.063132927 -1.5336722 1.0552151 2.0998738e-40
0.093017958 -1.53521 1.05463 9.6774232e-40
-0.06132254 -1.5247293 1.0541316 1.1779175e-40
-0.05827003 -1.5219014 1.0582044 1.1779175e-40
0.08826033 -1.5241957 1.0588248 1.0595778e-39
0.091225676 -1.5252748 1.0539228 1.0592163e-39
-0.061142541 -1.5188401 1.0504055 1.1779175e-40
-0.056381561 -1.5139226 1.0552958 2.0998738e-40
0.085864037 -1.5147933 1.0560801 1.0588562e-39
0.091079719 -1.5194598 1.0501653 1.0581359e-39
-0.053025246 -1.506456 1.0537223 1.1779175e-40
-0.047928821 -1.5022069 1.0574481 3.9474017e-40
0.078016661 -1.5026648 1.0572711 1.0577758e-39
0.082663484 -1.50611 1.0535591 1.0570541e-39
-0.043492615 -1.4949957 1.0547301 6.7096693e-40
-0.037511181 -1.4912311 1.0581682 8.5679872e-40
0.06768278 -1.4909276 1.0568132 1.0563324e-39
0.073619232 -1.4953076 1.0546079 1.0559737e-39
-0.040344086 -1.4887488 1.0502874 1.1779175e-40
-0.034398619 -1.4866405 1.0551443 5.8021323e-40
-0.026207263 -1.4816058 1.0560548 7.6496463e-40
0.048117775 -1.4801646 1.0595558 1.0534485e-39
0.056706142 -1.4827274 1.0561483 1.0541688e-39
0.064292058 -1.4869519 1.0548341 1.0545303e-39
0.070505962 -1.4892271 1.0500979 1.0534499e-39
-0.022478506 -1.4780855 1.0535301 8.5680012e-40
-0.015275373 -1.4751263 1.0547799 8.5716026e-40
-0.0057912418 -1.4722666 1.0559778 9.5187963e-40
0.0055828122 -1.4713616 1.0586327 9.5440336e-40
0.015160249 -1.4713093 1.0586534 1.0484011e-39
0.025055485 -1.4717027 1.0565872 1.0494829e-39
0.035713248 -1.4732929 1.0549437 1.049843e-39
0.045120958 -1.4761094 1.0548038 1.0509262e-39
0.052733917 -1.4786152 1.0533203 1.0516465e-39
-0.0026512761 -1.4695843 1.0520287 9.4899575e-40
0.0055788727 -1.4690893 1.0536901 9.5260129e-40
0.015158377 -1.4690737 1.0536963 9.5440336e-40
0.023369657 -1.4693431 1.0521252 1.0473207e-39
-0.058036447 -1.5534196 1.0673958 3.0290468e-40
-0.062076885 -1.5442294 1.0602643 3.0218301e-40
-0.059033297 -1.5427129 1.0653386 6.716872e-40
0.086974867 -1.5452771 1.0673902 9.6918426e-40
-0.057263069 -1.5354878 1.0665298 6.7132706e-40
0.087101392 -1.5345924 1.0653672 1.0606596e-39
-0.055416878 -1.5247853 1.0652047 1.1779315e-40
0.084870599 -1.5244709 1.0646863 1.059938e-39
-0.053425353 -1.516371 1.0626945 2.1034751e-40
-0.048561089 -1.5130619 1.0675067 8.5571832e-40
0.078766435 -1.5135119 1.0661538 1.0592177e-39
0.082272179 -1.5163817 1.0632862 1.0595778e-39
-0.044694457 -1.5051658 1.0651281 7.6388283e-40
0.067782879 -1.5014013 1.0689716 1.0577743e-39
0.074357368 -1.5055891 1.0650208 1.0581359e-39
-0.041377362 -1.4983187 1.062299 8.5643859e-40
-0.035185117 -1.4944392 1.0652641 8.5752039e-40
-0.029053448 -1.4915318 1.0683327 9.5007756e-40
0.057882436 -1.491783 1.0682366 1.0559709e-39
0.06514395 -1.4952555 1.0649502 1.0566939e-39
0.071525455 -1.499086 1.0620036 1.0577758e-39
-0.031844731 -1.4890698 1.0619501 8.5752039e-40
-0.024543101 -1.4857298 1.0644166 9.5043629e-40
-0.015691545 -1.4823384 1.0665081 9.5259989e-40
-0.0095420927 -1.480755 1.0680914 9.5404323e-40
0.03777615 -1.4808031 1.0673438 1.0516451e-39
0.045611404 -1.483137 1.0661107 1.0534485e-39
0.054325383 -1.4865015 1.0640734 1.0541702e-39
0.062061168 -1.4898885 1.0616326 1.0563324e-39
-0.013675443 -1.4782157 1.0617816 9.5296143e-40
-0.0051278896 -1.4772274 1.0647942 9.5404323e-40
0.0055773105 -1.4757845 1.0656469 1.0484025e-39
0.015158189 -1.4756718 1.0656906 1.0502031e-39
0.024739666 -1.4766459 1.0653117 1.0502045e-39
0.035026815 -1.4779187 1.0636004 1.0509248e-39
0.042592563 -1.4789686 1.0614872 1.0512863e-39
-0.056231618 -1.5462347 1.0700365 1.1779175e-40
0.082940988 -1.5435258 1.0770103 8.7085935e-40
-0.052675694 -1.5321206 1.0752244 1.1779175e-40
0.082693756 -1.5340818 1.0730174 9.6738219e-40
-0.052509677 -1.5279256 1.0747887 1.1779175e-40
-0.049372315 -1.5207657 1.0764471 1.1779175e-40
0.078687735 -1.5237569 1.0757657 9.6233471e-40
0.082532644 -1.5281172 1.070762 1.059938e-39
-0.045956351 -1.5139104 1.0743563 1.1779175e-40
0.074841321 -1.5145837 1.0736853 9.6449692e-40
-0.041076683 -1.5066558 1.0740411 1.1779175e-40
-0.036873326 -1.5018344 1.0746777 3.0254454e-40
0.065894872 -1.5034598 1.0756958 9.5944944e-40
0.070665598 -1.5079628 1.0738478 9.6305638e-40
-0.033085175 -1.4977258 1.0745485 1.1779175e-40
-0.026220545 -1.4923168 1.074755 1.1815188e-40
0.055368599 -1.4938501 1.0751499 9.5836904e-40
0.062119573 -1.49862 1.0729594 1.0538087e-39
-0.021175135 -1.4887145 1.0743682 3.9618071e-40
-0.014794551 -1.4859877 1.0742408 5.8021183e-40
-0.0053976607 -1.4823598 1.0747474 4.8873927e-40
0.0055892263 -1.4806408 1.0768517 3.9618071e-40
0.015163352 -1.480481 1.0769124 4.880176e-40
0.02512905 -1.481228 1.0758002 8.5860219e-40
0.03570848 -1.4832774 1.0743986 9.5548377e-40
0.04560468 -1.4876277 1.0752584 9.558453e-40
0.050908327 -1.488811 1.0708344 1.0534485e-39
0.0055725267 -1.4794872 1.0714895 9.5332156e-40
0.015156629 -1.4792436 1.0715828 1.0462389e-39
0.022000087 -1.479605 1.0714443 1.0462389e-39
-0.014600023 -1.6082255 1.0873622 9.6954439e-40
-0.0058052638 -1.6076431 1.0875612 1.0617414e-39
0.0044405647 -1.6074845 1.0876155 1.0617414e-39
0.014683762 -1.6074491 1.0876276 1.0617414e-39
0.024926713 -1.6074917 1.087613 1.0617414e-39
0.03517881 -1.6084948 1.0872701 1.0621016e-39
-0.034671903 -1.5947901 1.0874178 1.0613799e-39
-0.024609994 -1.5989265 1.0875069 1.0613813e-39
-0.01440288 -1.5984532 1.0876696 1.06174e-39
-0.0056607886 -1.5981566 1.0877715 1.0617414e-39
0.0045318236 -1.5979904 1.0878288 1.0617414e-39
0.014722373 -1.5978218 1.0878867 1.0617414e-39
0.024910625 -1.5976613 1.0879419 1.0617414e-39
0.035097159 -1.5975336 1.0879858 1.0617414e-39
0.045285411 -1.5976222 1.0879554 1.0617414e-39
0.054028276 -1.5981483 1.0877745 1.0624617e-39
0.066936754 -1.5901145 1.0875143 1.0631834e-39
-0.041465469 -1.5811067 1.0876188 1.0617414e-39
-0.033776511 -1.5844576 1.0876645 1.0617414e-39
-0.02489117 -1.5857601 1.0877302 1.0617414e-39
-0.014943019 -1.5842097 1.0878366 1.06174e-39
-0.0060441485 -1.5854015 1.0879407 1.06174e-39
0.0046211183 -1.5886863 1.088008 1.0617414e-39
0.014759761 -1.5884782 1.0880799 1.0617414e-39
0.024895534 -1.5882702 1.0881519 1.0617414e-39
0.035029162 -1.5881094 1.0882076 1.0617414e-39
0.045163229 -1.5881255 1.0882019 1.0617414e-39
0.055297554 -1.5881453 1.0881951 1.0617414e-39
0.062546492 -1.5885251 1.088064 1.0621016e-39
0.072478965 -1.580958 1.0876706 1.0635421e-39
-0.045470115 -1.5724438 1.0876328 9.6918426e-40
-0.035411581 -1.5721823 1.0877243 1.0617414e-39
-0.025356462 -1.5719234 1.0878148 1.06174e-39
-0.015302256 -1.571553 1.0879443 1.06174e-39
-0.004564458 -1.5733403 1.0880725 1.06174e-39
0.004749814 -1.575219 1.0881686 1.06174e-39
0.014813836 -1.5749183 1.0882736 1.0617414e-39
0.024873797 -1.574667 1.0883611 1.0617414e-39
0.034230493 -1.576708 1.0884 1.0617414e-39
0.045042112 -1.5787082 1.0884528 1.0617414e-39
0.055122893 -1.5786961 1.0884571 1.0617414e-39
0.066104025 -1.5762534 1.0883085 1.0621016e-39
0.073640436 -1.5712924 1.0880355 1.0628218e-39
-0.050890177 -1.5643785 1.0874654 1.0610212e-39
-0.045148194 -1.5638075 1.0876662 1.0613813e-39
-0.035134599 -1.5634676 1.0877857 1.06174e-39
-0.025124356 -1.5630935 1.0879173 1.06174e-39
-0.015119901 -1.5627477 1.0880389 1.0617414e-39
-0.005119666 -1.5623908 1.0881644 1.06174e-39
0.004876045 -1.5620003 1.0883018 1.06174e-39
0.01486661 -1.5616628 1.0884204 1.0617414e-39
0.024852533 -1.5613583 1.0885274 1.0617414e-39
0.035433359 -1.5645988 1.0885874 1.0617414e-39
0.044869937 -1.5652382 1.0886621 1.0617414e-39
0.054870218 -1.5649849 1.088751 1.0617414e-39
0.063886128 -1.5635806 1.0887452 1.0621016e-39
0.07479509 -1.5618893 1.0883406 1.0628232e-39
-0.05196717 -1.5558262 1.0874965 9.6774232e-40
-0.044815499 -1.5549446 1.0878083 1.06174e-39
-0.03485328 -1.5546532 1.0879115 1.06174e-39
-0.024892544 -1.5542879 1.0880406 1.06174e-39
-0.014936629 -1.5539161 1.088172 1.06174e-39
-0.0049862619 -1.5535908 1.0882871 1.0617414e-39
0.0049595442 -1.5532696 1.0884006 1.0617414e-39
0.014901309 -1.5529462 1.0885149 1.0617414e-39
0.024838593 -1.5526197 1.0886304 1.0617414e-39
0.034771767 -1.5522937 1.0887458 1.0617414e-39
0.04470288 -1.552115 1.088809 1.0617414e-39
0.054632571 -1.5519899 1.0888532 1.0617414e-39
0.064560324 -1.551846 1.088904 1.0617414e-39
0.074510694 -1.552393 1.0887107 1.0624617e-39
0.081646211 -1.5520597 1.0858557 9.6666192e-40
-0.051603626 -1.5470724 1.0876279 1.0606596e-39
-0.044486206 -1.5461669 1.0879499 1.0610198e-39
-0.034562938 -1.5456146 1.0881462 1.0617414e-39
-0.024657151 -1.5453826 1.0882288 1.0617414e-39
-0.014754413 -1.5451443 1.0883136 1.0617414e-39
-0.0048547168 -1.544908 1.0883975 1.0617414e-39
0.0050416901 -1.5446727 1.0884812 1.0617414e-39
0.014935146 -1.5444322 1.0885668 1.06174e-39
0.024824765 -1.5439996 1.0887206 1.06174e-39
0.034709539 -1.5436198 1.0888556 1.0617414e-39
0.044590749 -1.543349 1.0889519 1.0617414e-39
0.054473948 -1.5433306 1.0889585 1.0617414e-39
0.064355582 -1.543273 1.088979 1.0617414e-39
0.075668588 -1.5437522 1.0888087 1.0621016e-39
0.082739219 -1.5412878 1.0837632 8.7085935e-40
-0.05255425 -1.5357809 1.0872231 9.6521859e-40
-0.04643381 -1.5355096 1.0878123 1.0610184e-39
-0.034294695 -1.5371714 1.0881987 1.0613813e-39
-0.024435595 -1.5369326 1.0882841 1.0617414e-39
-0.014579969 -1.5366991 1.0883677 1.0617414e-39
-0.0047272868 -1.5364656 1.0884511 1.0617414e-39
0.0051221508 -1.5362325 1.0885345 1.0617414e-39
0.014968645 -1.5359999 1.0886177 1.0617414e-39
0.024811538 -1.5356617 1.0887387 1.06174e-39
0.034648985 -1.5351635 1.0889168 1.06174e-39
0.04448048 -1.5347214 1.0890749 1.06174e-39
0.0557185 -1.5346078 1.0891155 1.0617414e-39
0.065554611 -1.53466 1.0890968 1.0617414e-39
0.075397104 -1.5348589 1.0890256 1.0624631e-39
-0.052312978 -1.528283 1.0840237 1.1779175e-40
-0.044877179 -1.5242369 1.0873817 9.6413678e-40
-0.035309207 -1.5250354 1.088143 1.0613799e-39
-0.025508137 -1.5245194 1.0883292 1.0613813e-39
-0.014931424 -1.5247954 1.0884391 1.0617414e-39
-0.0046009696 -1.5280981 1.0885059 1.0617414e-39
0.0052018482 -1.5278724 1.0885872 1.0617414e-39
0.015001845 -1.5276418 1.08867 1.0617414e-39
0.024798483 -1.527375 1.0887659 1.06174e-39
0.034590185 -1.5269184 1.0889301 1.06174e-39
0.044375174 -1.5264308 1.0891054 1.06174e-39
0.055557609 -1.5261825 1.0891948 1.0617414e-39
0.065349169 -1.5263157 1.089147 1.0621002e-39
0.076541573 -1.5254138 1.0872695 9.6738219e-40
-0.044759776 -1.514292 1.0847087 4.9234201e-40
-0.034932818 -1.5133438 1.0879793 1.0610198e-39
-0.025189146 -1.5126189 1.0882429 1.06174e-39
-0.014108751 -1.5140749 1.0884464 1.06174e-39
-0.005198725 -1.5151762 1.0885696 1.06174e-39
0.0053196377 -1.5155122 1.0886564 1.0617414e-39
0.015050877 -1.5152922 1.0887363 1.0617414e-39
0.024779052 -1.5150723 1.0888159 1.06174e-39
0.034503743 -1.5147783 1.0889225 1.0613813e-39
0.044224013 -1.5144503 1.0890415 1.0617414e-39
0.055330664 -1.5142096 1.0891286 1.0617414e-39
0.06505648 -1.5143495 1.0890778 1.0617414e-39
0.07235527 -1.5147609 1.0851244 9.6377665e-40
-0.041048229 -1.5075871 1.0842414 3.0398648e-40
-0.035698261 -1.5035535 1.0853605 4.9486575e-40
-0.024985582 -1.5049789 1.0881133 1.0613799e-39
-0.015296302 -1.5043749 1.0883341 1.06174e-39
-0.0056207301 -1.5040436 1.0884552 1.06174e-39
0.0054312004 -1.5037236 1.0885721 1.0617414e-39
0.015097258 -1.5035328 1.088642 1.0617414e-39
0.024760935 -1.5034778 1.088662 1.0617414e-39
0.035802573 -1.5032656 1.0887396 1.0613813e-39
0.045458484 -1.5028709 1.0888839 1.0617414e-39
0.055115886 -1.5027881 1.0889142 1.06174e-39
0.06459333 -1.5043045 1.0848659 9.6089278e-40
-0.032454543 -1.4984837 1.0839552 3.0650882e-40
-0.025338994 -1.4945199 1.0851134 5.8598098e-40
-0.015079466 -1.493939 1.087814 1.0606596e-39
-0.0055074496 -1.4967585 1.0882223 1.0613813e-39
0.0055016177 -1.4962199 1.0884202 1.0613813e-39
0.01512622 -1.4961233 1.0884558 1.0617414e-39
0.024749316 -1.4960623 1.0884782 1.0617414e-39
0.035745453 -1.4959133 1.0885329 1.0613813e-39
0.046033375 -1.4943786 1.0883746 1.059938e-39
0.054618489 -1.4950179 1.0851353 8.6725521e-40
-0.020515874 -1.4893907 1.083704 1.1779175e-40
-0.014981394 -1.4867877 1.0832266 3.9618211e-40
-0.0053461473 -1.484937 1.085366 7.7289598e-40
0.0056088846 -1.4835498 1.0858836 8.6653354e-40
0.015170433 -1.4835747 1.0858744 8.6689508e-40
0.0247337 -1.4842072 1.0856376 9.5944944e-40
0.03568225 -1.4858286 1.0850313 8.640098e-40
0.044689715 -1.4885249 1.0845079 8.640098e-40
